# .PCD v0.7 - Point Cloud Data file format
VERSION 0.7
FIELDS x y z
SIZE 4 4 4
TYPE F F F
COUNT 1 1 1
WIDTH 197
HEIGHT 1
VIEWPOINT 0 0 0 1 0 0 0
POINTS 197
DATA ascii
0.16721416 -2.4047689 0.26745951
0.16761835 -2.394623 0.27973413
0.19736728 -2.417309 0.3987546
0.19668184 -2.4056807 0.40008405
0.20597376 -2.4132702 0.42167333
0.20529872 -2.396301 0.42946696
0.21521968 -2.4251218 0.45637968
0.21384543 -2.3960443 0.46136779
0.23101638 -2.5608265 0.51115882
0.19982742 -2.5251579 0.51619637
0.22552553 -2.5456593 0.50580984
0.1901219 -2.5136442 0.51781052
0.23182929 -2.4536407 0.506172
0.21980405 -2.4259281 0.49057949
0.17825486 -2.3645351 0.50388646
0.21678774 -2.3820341 0.50015157
0.14428258 -2.3482342 0.50394487
0.17191377 -2.33605 0.51224202
0.19429067 -2.3027654 0.51469529
0.21297376 -2.2885175 0.50016969
0.22227164 -2.2691088 0.50779933
0.26616228 -2.2476771 0.51366705
0.2907325 -2.2156546 0.5093686
0.28493744 -2.1805813 0.50849295
0.30409104 -2.1470768 0.51611084
0.18600112 -2.5636287 0.54723305
0.21402569 -2.5624166 0.52934527
0.18191934 -2.538048 0.53994256
0.20995723 -2.5499263 0.52495503
0.19158028 -2.5162957 0.54088145
0.2046386 -2.5058084 0.55378091
0.2311631 -2.4573812 0.53860748
0.19089444 -2.3622642 0.53479725
0.21572751 -2.3748939 0.54311538
0.17400669 -2.3408582 0.54091948
0.18534526 -2.308902 0.53864038
0.20759161 -2.2882249 0.54261065
0.23213001 -2.270319 0.53766024
0.26305985 -2.2552562 0.54757231
0.29997003 -2.2177377 0.53704798
0.29721031 -2.1779494 0.53908569
0.30166188 -2.1499019 0.53549123
0.3254652 -2.1382871 0.5555281
0.26064235 -2.6883423 0.5944885
0.27045518 -2.6582079 0.59016752
0.29006067 -2.6612136 0.59906477
0.25363266 -2.6197336 0.58986539
0.18746528 -2.5663543 0.57024843
0.21380751 -2.578625 0.58325797
0.24049063 -2.5948746 0.59227002
0.18073107 -2.5426061 0.56708378
0.21670488 -2.5402977 0.58752483
0.24595979 -2.5348413 0.59947079
0.19519606 -2.5131149 0.56474477
0.21338733 -2.496423 0.57876319
0.22799443 -2.446157 0.5666545
0.25302848 -2.4604287 0.58521736
0.26445875 -2.4241683 0.57966453
0.2975249 -2.4117124 0.5899896
0.22185177 -2.3788424 0.57633269
0.25852999 -2.3844545 0.59245914
0.18268059 -2.3374357 0.57668602
0.20254751 -2.3460896 0.58398122
0.19920895 -2.3116908 0.57595658
0.22055656 -2.2955863 0.57771182
0.24442905 -2.2861581 0.59114444
0.23075433 -2.261153 0.58654857
0.2512688 -2.260946 0.5753634
0.25562531 -2.2243245 0.58782023
0.29255822 -2.2126858 0.56542778
0.25446835 -2.195152 0.58910376
0.30505905 -2.1792471 0.57115048
0.31568688 -2.1492734 0.56779194
0.32083067 -2.1344745 0.56934577
0.25980318 -2.6881473 0.61095077
0.26203051 -2.6596212 0.62122172
0.28271991 -2.6619103 0.61123604
0.25773498 -2.6224902 0.61962414
0.22986591 -2.5778506 0.60596693
0.25820562 -2.5784514 0.62502891
0.25317836 -2.5362067 0.62187403
0.23332874 -2.4934621 0.60993207
0.2451029 -2.505574 0.62951595
0.25551805 -2.4665048 0.6219883
0.29216546 -2.4475183 0.61776757
0.25792426 -2.411798 0.63425922
0.291347 -2.4244852 0.61542088
0.2392358 -2.3635554 0.60685408
0.26668513 -2.3763466 0.62288624
0.29197681 -2.3826108 0.61250681
0.19648567 -2.3516607 0.60706288
0.21884891 -2.3465798 0.62039924
0.25832996 -2.331856 0.62979704
0.29597494 -2.3202076 0.63928765
0.26156443 -2.3028445 0.60192502
0.28294513 -2.306798 0.61463106
0.34630868 -2.28966 0.62506855
0.26507473 -2.2519615 0.60785484
0.30662197 -2.2687182 0.6066407
0.35312417 -2.2405102 0.6242376
0.38249999 -2.2548046 0.62338448
0.41860956 -2.2631762 0.63759613
0.25745386 -2.2187686 0.60841674
0.29428563 -2.2274318 0.62414318
0.34147072 -2.2296417 0.62517869
0.2511383 -2.1909583 0.61216247
0.32882223 -2.7239311 0.65879261
0.25812694 -2.6877725 0.6438334
0.22274834 -2.6567688 0.65242189
0.22943577 -2.6331768 0.65749949
0.26618326 -2.6192527 0.66264069
0.29423249 -2.60517 0.6568442
0.30752629 -2.57884 0.6612162
0.32518613 -2.5877905 0.66168118
0.27382207 -2.5407374 0.65017927
0.30939057 -2.5461133 0.66853052
0.32122484 -2.5441928 0.67963541
0.23718348 -2.4935393 0.66522944
0.25959525 -2.5057039 0.6699006
0.31202114 -2.5170307 0.66897964
0.23147149 -2.4722979 0.65490282
0.25206298 -2.4535797 0.64641827
0.26366329 -2.4209437 0.65358144
0.28168675 -2.4028139 0.66719276
0.27092794 -2.3848226 0.64741844
0.30168724 -2.3737717 0.65930367
0.33877134 -2.3706663 0.67545962
0.30522454 -2.339468 0.65049243
0.35081381 -2.34764 0.66564262
0.37505424 -2.3382511 0.67523593
0.35908163 -2.3113523 0.65690672
0.37940788 -2.2928131 0.64646327
0.41940591 -2.2931516 0.67205143
0.4165518 -2.258893 0.65927577
0.42767864 -2.2231328 0.65482104
0.46771586 -2.1878517 0.64821345
0.49070933 -2.1856706 0.6792897
0.28597158 -2.6083374 0.68754143
0.30319688 -2.5864916 0.69083232
0.33525336 -2.5668211 0.70475924
0.34304181 -2.5380645 0.69588071
0.37368113 -2.5412054 0.71241403
0.23839597 -2.4842045 0.69101375
0.25366029 -2.4953101 0.70373565
0.31970754 -2.518451 0.68257838
0.32439509 -2.5199096 0.69600981
0.22943263 -2.4655604 0.69477266
0.24567693 -2.4541557 0.70164996
0.25911731 -2.4354622 0.71168327
0.30972227 -2.3777909 0.70502633
0.34668809 -2.3660319 0.70356178
0.35522386 -2.3582861 0.70529896
0.40265781 -2.3351986 0.68465084
0.44263569 -2.3327813 0.71693593
0.44163275 -2.3010848 0.6917417
0.42463017 -2.2597587 0.6810413
0.41210553 -2.2338846 0.68325418
0.45076337 -2.2111444 0.68856359
0.30357051 -2.6027737 0.7418558
0.32319289 -2.6174948 0.74960208
0.27886415 -2.5695772 0.73578948
0.28472567 -2.5810227 0.73526269
0.2730374 -2.5384281 0.73877573
0.28301373 -2.5384562 0.74027812
0.25512603 -2.5011342 0.7371915
0.29021549 -2.5148182 0.75706148
0.256874 -2.4617209 0.73482811
0.27373281 -2.4357824 0.7260735
0.30777881 -2.3801982 0.72414547
0.33179918 -2.3642402 0.72892386
0.38550547 -2.3437462 0.73776543
0.41356853 -2.3383644 0.7275725
0.49493292 -2.3123472 0.73944306
0.52014571 -2.2918315 0.72945672
0.31647572 -2.6065295 0.7695002
0.29546207 -2.5825191 0.76755702
0.2524114 -2.5435019 0.78102398
0.29066047 -2.5288811 0.76823938
0.24948622 -2.5194907 0.7873345
0.30585942 -2.516125 0.7723949
0.29003131 -2.5676622 0.82751459
0.2623817 -2.5367665 0.81026554
0.28584975 -2.5361252 0.83060914
0.31594369 -2.6049972 0.86780369
0.30288655 -2.575995 0.85694176
0.30601045 -2.5429759 0.85593033
0.32287574 -2.5336547 0.87211728
0.34291577 -2.5124962 0.86636454
0.30875161 -2.569309 0.89674467
0.32881951 -2.5894089 0.89959568
0.26252484 -2.5446181 0.90009445
0.2959646 -2.550142 0.89784813
0.32914954 -2.5286956 0.88759762
0.3567045 -2.5153995 0.89637733
0.38339344 -2.5007689 0.89816338
0.3385646 -2.5805843 0.93692416
0.30672848 -2.5594637 0.92367184
