# .PCD v0.7 - Point Cloud Data file format
VERSION 0.7
FIELDS x y z
SIZE 4 4 4
TYPE F F F
COUNT 1 1 1
WIDTH 249
HEIGHT 1
VIEWPOINT 0 0 0 1 0 0 0
POINTS 249
DATA ascii
0.034815188 -4.2163157 0.35486597
0.055209175 -4.2130761 0.35305849
0.033725709 -4.2108378 0.38253066
0.053850651 -4.2101822 0.36830825
0.02916649 -4.1824131 0.39579538
0.029286904 -4.2119551 0.41793504
0.019219283 -4.1776562 0.41975597
0.02203932 -4.1476817 0.4231908
-0.01333638 -4.2103801 0.47053823
0.014832652 -4.2113419 0.46036294
-0.0087907417 -4.1615353 0.44699398
0.01207598 -4.1853199 0.46147692
0.050846744 -4.1691799 0.45989048
-0.0065142196 -4.1468143 0.45464358
0.014029549 -4.1363058 0.45515093
0.061648905 -4.13977 0.4592008
0.066721126 -4.1156235 0.47433683
0.081003621 -4.1188049 0.46036753
-0.31079447 -4.4469662 0.51991487
-0.047115833 -4.2297387 0.51293796
-0.020547096 -4.2169647 0.50053501
0.017530451 -4.2165852 0.50380117
0.013030798 -4.1794519 0.50364113
-0.0048625227 -4.1487784 0.4922691
0.019238157 -4.137599 0.49902964
0.05467853 -4.1392083 0.51164448
0.10395749 -4.1321411 0.51144385
0.060957137 -4.1107073 0.48948237
0.097324103 -4.1050806 0.49537081
0.13057707 -4.1084847 0.50672829
-0.32761472 -4.4444399 0.54169178
-0.30990991 -4.4453077 0.53267431
-0.32244894 -4.4333768 0.55630356
-0.30217639 -4.4188938 0.53797781
-0.29276296 -4.3881564 0.54604208
-0.2699447 -4.3757944 0.54049468
-0.26296079 -4.3508482 0.55252165
-0.2102927 -4.3340392 0.55918735
-0.18222912 -4.3231225 0.55974871
-0.15300114 -4.3269138 0.54895818
-0.13349862 -4.3131318 0.54446691
-0.10934506 -4.2959871 0.54449421
-0.090815105 -4.2651591 0.54553646
-0.061118905 -4.246511 0.54183638
-0.024590109 -4.2418756 0.55239308
-0.040372811 -4.2347212 0.52517593
-0.017173555 -4.2338839 0.53941482
0.018243948 -4.2226691 0.53736347
0.027605753 -4.1840839 0.54203707
0.046699539 -4.1763582 0.55472773
0.03574701 -4.1550994 0.5333842
0.061981019 -4.1430221 0.54141098
0.093625799 -4.1279092 0.54043388
0.10562444 -4.1072788 0.54545432
0.12954909 -4.1069293 0.52441067
-0.32995826 -4.4417167 0.56327593
-0.33351657 -4.4186425 0.57439852
-0.31400627 -4.4068351 0.56383568
-0.36089802 -4.3936081 0.59369886
-0.33459127 -4.3836198 0.58981436
-0.30058709 -4.3744106 0.57830882
-0.27811375 -4.3600039 0.56488031
-0.29201296 -4.354105 0.58655721
-0.26013896 -4.347508 0.5804081
-0.22579339 -4.3370409 0.57878172
-0.1620113 -4.3250775 0.56004024
-0.14902124 -4.3234043 0.56026125
-0.2109863 -4.3050117 0.58333653
-0.18087073 -4.305119 0.58172405
-0.1374166 -4.3066573 0.57996297
-0.10429167 -4.2906537 0.57933813
-0.074905619 -4.2838497 0.59094536
-0.13658598 -4.2766767 0.59764957
-0.087987371 -4.2737451 0.56718272
-0.058094453 -4.2612658 0.57823646
-0.026644209 -4.2453961 0.57433385
-0.012934516 -4.2208543 0.58012915
0.017372709 -4.202672 0.57852399
0.049685311 -4.2023821 0.58044249
-0.0072243717 -4.1948571 0.5941571
0.017562656 -4.1939392 0.58036447
0.060778659 -4.184998 0.58166301
0.061447106 -4.137598 0.57778382
0.091862187 -4.1291685 0.58388901
0.1069271 -4.1005116 0.58266413
0.10423195 -4.0644536 0.58393413
0.090560809 -4.0389724 0.58908653
-0.35662651 -4.4031549 0.61475635
-0.34603164 -4.377913 0.61686945
-0.25566021 -4.3690028 0.61728615
-0.23696074 -4.3774214 0.62252122
-0.33220172 -4.3426013 0.62275237
-0.30484897 -4.3364415 0.62169766
-0.25092587 -4.3452005 0.61580265
-0.22616808 -4.3288493 0.62434185
-0.19599327 -4.3204188 0.63228178
-0.21012267 -4.3111119 0.61284196
-0.17828096 -4.3056788 0.61798882
-0.14703235 -4.2919946 0.62312174
-0.098257206 -4.2872787 0.62339932
-0.14177285 -4.2748995 0.6112498
-0.088471189 -4.2763786 0.62123382
-0.069821082 -4.259479 0.61790562
-0.056887511 -4.2177377 0.62062299
-0.035431899 -4.2077093 0.60264349
-0.023723375 -4.1784792 0.62006193
0.018969445 -4.1680794 0.62170643
0.065936267 -4.180902 0.61754602
0.090205669 -4.1710134 0.61899012
-0.010126958 -4.1586308 0.61596072
0.077535756 -4.1368999 0.63519061
0.094143778 -4.1359744 0.61853808
0.11090545 -4.1136141 0.62088281
0.13502042 -4.096539 0.62097681
0.17741852 -4.0925741 0.62987751
0.20433071 -4.0816364 0.63278508
-0.32024351 -4.4032192 0.67014772
-0.31504777 -4.4058685 0.67796993
-0.32846117 -4.3834076 0.65338457
-0.30761737 -4.3735805 0.6703577
-0.32587638 -4.3523159 0.64750814
-0.29642889 -4.3469362 0.65681452
-0.25906879 -4.3419533 0.6629743
-0.22514695 -4.3282142 0.65657157
-0.17668071 -4.325861 0.65811455
-0.14633134 -4.3237853 0.6645112
-0.10774922 -4.326755 0.67025757
-0.078931116 -4.3269258 0.67938912
-0.21256818 -4.3180032 0.66728479
-0.18943971 -4.3181205 0.66182148
-0.14059906 -4.3157353 0.65696698
-0.097395435 -4.2974482 0.65730196
-0.084687531 -4.2637687 0.66500998
-0.068661943 -4.2499318 0.66053009
-0.036505971 -4.2421308 0.67802066
-0.053225804 -4.2291164 0.65414703
-0.035671569 -4.2112045 0.65508944
0.10930453 -4.2002873 0.67175353
-0.024024943 -4.183506 0.65155232
0.017458629 -4.1770616 0.65010524
0.10124448 -4.1805015 0.65608853
0.12320141 -4.1745248 0.67478591
0.10044258 -4.1363349 0.65269452
0.13345523 -4.1365457 0.67379421
0.11575389 -4.1171684 0.64853275
0.14220577 -4.1046085 0.65879631
0.18286981 -4.0923347 0.65973073
0.20928618 -4.0846963 0.66562498
0.19804615 -4.0735416 0.65223193
0.21303345 -4.0618243 0.65913641
0.2643854 -4.0581999 0.67352551
0.2893551 -4.0434952 0.67365539
0.30117714 -4.0362406 0.67835379
-0.31552267 -4.4081631 0.69006658
-0.30817044 -4.3826714 0.68680078
-0.29359189 -4.3400683 0.68883556
-0.26156226 -4.3292108 0.68842381
-0.21966296 -4.3259716 0.6955145
-0.17978956 -4.3322186 0.70087498
-0.1450171 -4.3347688 0.70532703
-0.098963276 -4.3301463 0.70441854
-0.075565577 -4.3275619 0.70490122
-0.28953257 -4.3132277 0.70151263
-0.25802016 -4.3176255 0.70050865
-0.14016511 -4.310997 0.68909335
-0.088915423 -4.302568 0.70039231
-0.071791776 -4.3009481 0.70983219
-0.013981801 -4.2836485 0.712565
0.0070774099 -4.2845426 0.71688282
-0.086626634 -4.2667389 0.69120461
-0.061972309 -4.2642961 0.69930881
-0.02793875 -4.264648 0.69589192
0.0024917251 -4.2799616 0.70793158
0.10905308 -4.2198381 0.70950192
0.12285442 -4.2042742 0.70481926
0.11862702 -4.1973124 0.68055832
0.12284273 -4.1755953 0.70009911
0.14102896 -4.1447887 0.69958442
0.16598767 -4.1277308 0.70710564
0.21799521 -4.1227989 0.71388239
0.26334971 -4.131218 0.71466351
0.17882107 -4.1140399 0.69797909
0.2236931 -4.0998955 0.68860203
0.26069301 -4.0962725 0.69682831
0.27120957 -4.0678926 0.68955266
0.28787351 -4.0494065 0.6884079
-0.10583087 -4.3647919 0.75130516
-0.2059111 -4.3413115 0.72105443
-0.18019772 -4.338738 0.72390503
-0.13190748 -4.3404546 0.73200148
-0.10158223 -4.3357935 0.74140376
-0.061346516 -4.3346677 0.74115241
-0.037070163 -4.3274927 0.75640428
-0.054670446 -4.3008752 0.72981036
-0.023753088 -4.3009181 0.74212974
0.0030468588 -4.2921228 0.72522551
0.087566666 -4.2469354 0.73982579
0.10525984 -4.2209444 0.73992074
0.12009441 -4.2092938 0.72292542
0.11546899 -4.1814895 0.73902744
0.1222073 -4.17309 0.7325139
0.11856838 -4.1581411 0.74302292
0.13881539 -4.1452565 0.73680788
0.1770408 -4.1327763 0.73690307
0.21688673 -4.132854 0.74573249
0.26344055 -4.1375742 0.74761742
0.28604293 -4.1450396 0.73540092
-0.10069833 -4.3751569 0.7802183
-0.087687723 -4.3543167 0.77818418
-0.060111307 -4.3413453 0.78082603
-0.026085822 -4.329288 0.77374649
-0.041581217 -4.3121314 0.79070055
-0.030588109 -4.3116169 0.78401589
0.087278634 -4.2471337 0.76430273
0.068387993 -4.2057843 0.79006195
0.096602343 -4.2169385 0.76950252
0.075909778 -4.1965075 0.79412794
0.10320525 -4.1955166 0.78066623
0.1390363 -4.1797786 0.78155077
0.16277313 -4.1602859 0.79860193
0.15072334 -4.1501069 0.77223283
0.17449775 -4.1338959 0.7826193
0.21421209 -4.1287637 0.76767623
0.24216524 -4.1235428 0.7631923
0.28150189 -4.1375175 0.7694732
0.18930393 -4.1102061 0.79233474
0.21507551 -4.1134815 0.78103834
-0.08434353 -4.3800168 0.80912846
-0.078329705 -4.362339 0.81592715
-0.083818652 -4.3555474 0.80186713
-0.064340919 -4.3367963 0.81108958
-0.038824104 -4.321332 0.80860639
-0.036999896 -4.3114367 0.80350161
0.073441654 -4.2049756 0.80704105
0.08782278 -4.2010937 0.81702894
0.079145983 -4.1992598 0.80719537
0.10380241 -4.1967058 0.80975413
0.14334637 -4.1884046 0.81032866
0.17259605 -4.1680222 0.82314616
0.20474385 -4.1641111 0.83541757
0.18174912 -4.1451826 0.81040555
0.21858436 -4.1405635 0.82639492
0.24276511 -4.1242695 0.83189964
0.1935036 -4.1129146 0.8057034
0.2173181 -4.1182547 0.81847805
0.17384923 -4.1658335 0.84536999
0.21924925 -4.1728525 0.85386741
0.25087175 -4.1742129 0.85337794
0.26068535 -4.155067 0.8478592
