# .PCD v0.7 - Point Cloud Data file format
VERSION 0.7
FIELDS x y z
SIZE 4 4 4
TYPE F F F
COUNT 1 1 1
WIDTH 206
HEIGHT 1
VIEWPOINT 0 0 0 1 0 0 0
POINTS 206
DATA ascii
0.20059894 -2.4034941 0.39551753
0.19759367 -2.3881006 0.38665771
0.21344925 -2.4068172 0.42373011
0.20645995 -2.3889802 0.42068005
0.2190911 -2.4140036 0.4594101
0.21968046 -2.3776693 0.46035543
0.22286843 -2.3534987 0.47283593
0.23509803 -2.5348876 0.51176602
0.24222119 -2.5329909 0.50061756
0.23147725 -2.5004635 0.51291698
0.24360074 -2.5088167 0.50089741
0.23138893 -2.4269001 0.49834225
0.22984055 -2.3665638 0.50024235
0.19430473 -2.3286836 0.50876415
0.21429254 -2.3505638 0.5009498
0.18511979 -2.3013966 0.50799829
0.20987058 -2.2848802 0.49228871
0.22191818 -2.2615571 0.5005734
0.25810722 -2.2329032 0.50810194
0.29469198 -2.2087662 0.50237477
0.30082691 -2.1783912 0.50554603
0.30517605 -2.141968 0.50302017
0.32250825 -2.1131558 0.50719512
0.17729113 -2.5307429 0.54991615
0.21527891 -2.5368972 0.52900398
0.18507349 -2.5023623 0.54398811
0.21801336 -2.5014508 0.52384359
0.23747903 -2.4406958 0.54825532
0.2318323 -2.4268551 0.53569931
0.22001311 -2.3640208 0.53602517
0.1838668 -2.3300412 0.54067367
0.21615566 -2.3502405 0.5368818
0.17916633 -2.2996278 0.54040629
0.21900606 -2.2593114 0.53829432
0.26231194 -2.2228072 0.54530436
0.289828 -2.2082264 0.53036213
0.29986787 -2.1799145 0.53961337
0.30631667 -2.1468053 0.53527594
0.32783911 -2.1306975 0.5459193
0.3463167 -2.1065831 0.5426755
0.36743537 -2.0976651 0.54028559
0.26869246 -2.6832139 0.59399283
0.265131 -2.65838 0.58938563
0.25627267 -2.6222539 0.58266121
0.28121442 -2.6360247 0.59942061
0.22882456 -2.5645635 0.58012551
0.25240037 -2.5834169 0.5921424
0.18721704 -2.5362902 0.56975472
0.21931949 -2.5438192 0.58766299
0.24213473 -2.5349951 0.59971446
0.19032554 -2.5020683 0.56421798
0.21370338 -2.4997239 0.57899898
0.25186688 -2.5061748 0.59485692
0.19895422 -2.4761689 0.57249886
0.2334753 -2.4537373 0.58009624
0.24640687 -2.447336 0.58592987
0.23518206 -2.4291494 0.56696945
0.26327398 -2.4203098 0.57991761
0.29126951 -2.4124801 0.59555525
0.27115726 -2.3689501 0.57041359
0.30195346 -2.3850353 0.58262318
0.32363471 -2.3673806 0.59400821
0.19164142 -2.3277087 0.58413494
0.21795575 -2.3390288 0.57368475
0.25451672 -2.3511956 0.57968783
0.2949633 -2.3527727 0.59062576
0.32444814 -2.354295 0.59534389
0.18720371 -2.3057187 0.57538354
0.21716383 -2.293155 0.59115946
0.22756322 -2.2591202 0.57309598
0.2538459 -2.2559652 0.59190649
0.2343678 -2.2313316 0.57720011
0.24968918 -2.2162182 0.58553892
0.23433474 -2.174638 0.58897978
0.25459087 -2.1860154 0.58784491
0.29578313 -2.1785655 0.5681985
0.31542915 -2.1509385 0.56759793
0.32203379 -2.1343732 0.56767267
0.33294916 -2.114768 0.56648391
0.22099066 -2.6449306 0.63535815
0.25796008 -2.6568229 0.61405653
0.23256356 -2.6227322 0.63861597
0.26486337 -2.6171083 0.62040955
0.28981304 -2.6263022 0.61165911
0.264007 -2.5804188 0.61878192
0.28211096 -2.5816381 0.63577271
0.23019642 -2.5514493 0.60760301
0.25946105 -2.5349972 0.6215601
0.25563249 -2.498383 0.62077039
0.2333661 -2.4728031 0.60891342
0.25593063 -2.4574044 0.62107056
0.27563033 -2.4061553 0.63942909
0.2980338 -2.4207909 0.62072796
0.26212803 -2.3827074 0.62765735
0.29646903 -2.3791161 0.60926002
0.32468888 -2.3637967 0.60312271
0.19152148 -2.3305073 0.60467261
0.21789239 -2.3338978 0.61618578
0.26518291 -2.3445218 0.62512189
0.29977202 -2.3506029 0.61735415
0.32423508 -2.3551664 0.60398209
0.22569196 -2.3129141 0.61361223
0.25759691 -2.3011835 0.61587453
0.30452853 -2.2946572 0.6267873
0.33544767 -2.2858644 0.63342845
0.30661401 -2.2705994 0.60628515
0.34511036 -2.269351 0.61773956
0.37997234 -2.2593174 0.62445694
0.41419813 -2.2476704 0.63303781
0.26363176 -2.2150333 0.6059705
0.29874915 -2.2249348 0.61210775
0.32944804 -2.2399788 0.60696626
0.37959084 -2.2243884 0.62108797
0.42345759 -2.2222145 0.63285905
0.25224563 -2.1767459 0.60833633
0.43401527 -2.1833413 0.63400161
0.26514626 -2.1521919 0.61860871
0.2127855 -2.6436803 0.64535618
0.22352764 -2.618207 0.65519291
0.26358256 -2.5923135 0.65712303
0.29265669 -2.5720766 0.66254169
0.27313405 -2.5277753 0.65016901
0.29247463 -2.5456979 0.66060281
0.26027381 -2.4993653 0.65726024
0.28827778 -2.5183814 0.67096567
0.25856385 -2.4676359 0.66156298
0.28016311 -2.4400587 0.64464873
0.25230181 -2.405515 0.65657401
0.29041311 -2.4139619 0.64377248
0.26036564 -2.3835604 0.65190929
0.29472494 -2.3669558 0.66176361
0.32253045 -2.3621373 0.67308784
0.2779825 -2.3558187 0.64475149
0.2995573 -2.33641 0.64811116
0.33962616 -2.3433907 0.6675939
0.37202755 -2.3291845 0.67149144
0.33866245 -2.3046546 0.64934897
0.38511467 -2.3050783 0.66272396
0.41982728 -2.299489 0.67347062
0.38805872 -2.2737808 0.64618772
0.41333124 -2.2573822 0.65599108
0.45366156 -2.2606549 0.67508966
0.41760838 -2.2215917 0.66015553
0.45412254 -2.2241859 0.66607082
0.46384853 -2.1887872 0.65885746
0.29986718 -2.5774834 0.69431305
0.32983825 -2.5682678 0.68718958
0.2764883 -2.531461 0.71882766
0.29336178 -2.5373042 0.70681733
0.33452496 -2.5404332 0.69648165
0.36154437 -2.5401917 0.70256966
0.23997267 -2.4820957 0.71912473
0.2709049 -2.4942772 0.70302063
0.29060909 -2.50875 0.69021916
0.23796986 -2.4555352 0.69718748
0.25355995 -2.4622083 0.69902366
0.23530741 -2.4367144 0.69073337
0.25700042 -2.4239459 0.70065325
0.29555076 -2.4076047 0.71317387
0.31402713 -2.3558517 0.70609206
0.3350814 -2.3425851 0.70266497
0.36882743 -2.3304522 0.68018603
0.44327587 -2.287159 0.68122071
0.46086928 -2.270119 0.68431306
0.46254277 -2.2069139 0.69098401
0.27560118 -2.5650654 0.74866956
0.29241332 -2.5770991 0.74232799
0.23581834 -2.5305269 0.74321824
0.25809509 -2.5439923 0.73702472
0.19020291 -2.4912705 0.74077451
0.21920298 -2.5006216 0.73891634
0.26187107 -2.5095234 0.7262612
0.22495198 -2.4721634 0.72937024
0.25208634 -2.4549012 0.73493028
0.27354276 -2.4251785 0.72809553
0.2844376 -2.4217987 0.74010909
0.32306725 -2.4018862 0.72147977
0.31736758 -2.3504355 0.72623575
0.27846378 -2.5618324 0.77056593
0.28777882 -2.5767257 0.76848757
0.25446644 -2.5322461 0.78082454
0.23074439 -2.5065401 0.76719654
0.25544107 -2.5040224 0.78727269
0.2984409 -2.5609932 0.83857203
0.2780726 -2.5283527 0.81214273
0.29908705 -2.5388811 0.83044809
0.27101585 -2.5089402 0.80651015
0.29842508 -2.5002654 0.8203907
0.32715413 -2.4917531 0.83533007
0.30107167 -2.5670807 0.85574031
0.32153565 -2.5657456 0.87837976
0.3053202 -2.5400169 0.85520875
0.32627523 -2.5327988 0.87452608
0.31414884 -2.5191679 0.84687328
0.33999148 -2.4982431 0.85963172
0.36262989 -2.4864094 0.87984198
0.35862455 -2.47577 0.86200207
0.32828128 -2.569643 0.90511733
0.33641517 -2.5413802 0.89879251
0.35257816 -2.508528 0.88988739
0.36419716 -2.5002847 0.90327823
0.37149286 -2.4778552 0.88753808
0.3295213 -2.5686831 0.92642343
0.34312445 -2.5410233 0.93314207
0.36975861 -2.5270953 0.9270705
0.37525457 -2.5182676 0.92963028
