# .PCD v0.7 - Point Cloud Data file format
VERSION 0.7
FIELDS x y z
SIZE 4 4 4
TYPE F F F
COUNT 1 1 1
WIDTH 203
HEIGHT 1
VIEWPOINT 0 0 0 1 0 0 0
POINTS 203
DATA ascii
0.14062805 -3.360065 0.29361975
0.14583498 -3.3439574 0.30491513
0.14631991 -3.3601182 0.35740921
0.1475696 -3.346674 0.33947584
0.16725524 -3.3273499 0.3427864
0.17570342 -3.3103988 0.34091157
0.15448909 -3.3434277 0.38959038
0.17163214 -3.3307838 0.37283823
0.18043503 -3.3075469 0.38151827
0.16755226 -3.3615751 0.42015582
0.15357827 -3.3396814 0.42203286
0.15664996 -3.3165271 0.42914486
0.16996075 -3.3008039 0.41816157
0.1699084 -3.3614895 0.46151689
0.1569715 -3.3327491 0.45059109
0.16801713 -3.3417974 0.46233878
0.096417703 -3.3027499 0.46342638
0.13740852 -3.3158507 0.46139732
0.099619389 -3.2961779 0.48904595
0.14686206 -3.3043163 0.49739718
0.16690052 -3.2957711 0.5143975
0.099399932 -3.2700589 0.4889091
0.14834516 -3.2605262 0.49451715
0.16990265 -3.2595501 0.51116496
0.18498641 -3.2216368 0.50323957
0.20607294 -3.2054241 0.49082828
0.19212192 -3.1916261 0.51650023
0.2114224 -3.1787345 0.4977515
0.20416351 -3.1540968 0.50178248
0.14923391 -3.0823581 0.51743186
0.18424907 -3.0866301 0.51591313
0.14060813 -3.0687456 0.51769388
0.1734017 -3.0468459 0.51604038
0.19373418 -3.0286474 0.50789475
0.20704955 -3.0105791 0.50617296
0.18955623 -2.9866717 0.5012058
0.20253468 -2.9983904 0.50363225
0.14547633 -3.2865951 0.55012482
0.16792469 -3.2924531 0.53412956
0.14536642 -3.2592909 0.54642355
0.16412485 -3.2611253 0.52876693
0.14642842 -3.219898 0.54649675
0.16111568 -3.2195528 0.52848721
0.14971021 -3.1785316 0.55926639
0.17869243 -3.1774745 0.54005373
0.20295863 -3.1799319 0.52667761
0.1550104 -3.1523519 0.55897677
0.18029255 -3.1526484 0.53502023
0.14965646 -3.0851519 0.54298729
0.16423528 -3.0894704 0.54271877
0.14515083 -3.0681 0.54075056
0.17626271 -3.0476563 0.54527557
0.19943886 -3.0084834 0.55731487
0.20655763 -3.0200653 0.53906029
0.19568172 -2.9889727 0.52516693
0.20445991 -2.997386 0.52494162
0.18960792 -3.6141682 0.58940578
0.21660793 -3.6150353 0.5744561
0.1807576 -3.5853591 0.59109783
0.20917085 -3.596004 0.5742175
0.14943732 -3.5377686 0.59060007
0.14646173 -3.51436 0.59375024
0.10755797 -3.4511194 0.58091569
0.10236309 -3.4249852 0.57389337
0.13179114 -3.4143372 0.58620495
0.13666484 -3.3863831 0.57780492
0.11124925 -3.3552883 0.59110034
0.13925959 -3.2940316 0.57975841
0.14870271 -3.260731 0.56783164
0.16448162 -3.2593086 0.58930475
0.14340912 -3.2196333 0.5750764
0.16479219 -3.2167377 0.59093124
0.15091968 -3.1781869 0.57470828
0.16792576 -3.1764936 0.59056664
0.15722275 -3.1518364 0.57449496
0.17380498 -3.1391952 0.59030437
0.29876387 -3.0597289 0.59260112
0.19522955 -3.0126927 0.57161808
0.21861972 -3.0252919 0.57376838
0.19489589 -2.99857 0.57324922
0.1392794 -3.6063139 0.61513269
0.16619682 -3.6045203 0.60584891
0.11891836 -3.5945277 0.63450104
0.13973296 -3.5789449 0.62143755
0.1746026 -3.5910778 0.60599422
0.13026264 -3.5384071 0.61766207
0.073738739 -3.4871161 0.63990444
0.10180944 -3.4936397 0.61930996
0.13014473 -3.5124786 0.61574239
0.069021098 -3.4631758 0.62872034
0.093784936 -3.4539566 0.61314273
0.10984407 -3.433084 0.61990631
0.13484511 -3.4178317 0.61650079
0.079525337 -3.361927 0.6193791
0.090510383 -3.3718975 0.62013388
0.12574615 -3.3970363 0.62236351
0.076476261 -3.3471003 0.62385798
0.095302649 -3.3381295 0.61853302
0.11866868 -3.3155937 0.6059075
0.14041418 -3.3050869 0.61753803
0.17594571 -3.2885463 0.62181187
0.1478748 -3.2540596 0.61528295
0.17379954 -3.2736862 0.62147713
0.15217851 -3.2261164 0.61832476
0.17204115 -3.2080307 0.61516589
0.1852131 -3.1787343 0.60839963
0.21248193 -3.1752865 0.63113624
0.17455573 -3.1425552 0.6124416
0.21129207 -3.1394343 0.63498139
0.19788671 -3.1142843 0.62298936
0.20045117 -3.1141293 0.61231011
0.27033609 -3.0702336 0.60347927
0.29897177 -3.0475061 0.61801207
0.30857682 -3.0277393 0.63399738
0.32005319 -3.0258036 0.61671799
0.1443079 -3.6028552 0.65198815
0.18130399 -3.6169364 0.6677525
0.1349127 -3.5821576 0.6499027
0.18100525 -3.5987337 0.67103803
0.11352433 -3.5344234 0.67133266
0.12045561 -3.5592165 0.64434189
0.076210931 -3.4876888 0.64981431
0.10425144 -3.5025718 0.66075373
0.059130985 -3.4646256 0.65749365
0.10145095 -3.4576445 0.66158462
0.11273917 -3.4287589 0.64884907
0.13322227 -3.4183593 0.66414005
0.10781267 -3.3745866 0.6460793
0.13126375 -3.3854408 0.66349882
0.1105769 -3.3347199 0.6573984
0.13119888 -3.3405452 0.66434962
0.077928476 -3.2984037 0.67661488
0.098166496 -3.2991431 0.67231351
0.14808093 -3.3061988 0.65883785
0.18744972 -3.2991834 0.65261155
0.20153554 -3.2866468 0.6470508
0.15479574 -3.257031 0.65490663
0.1779117 -3.2594461 0.66091174
0.15723346 -3.2337027 0.64303643
0.18008953 -3.2239368 0.65536255
0.21547115 -3.2168646 0.66929913
0.22966278 -3.1905222 0.65546948
0.2550011 -3.1697295 0.66488928
0.26521531 -3.1386063 0.65000731
0.29400682 -3.135051 0.66985649
0.26457193 -3.1158657 0.64967322
0.30803776 -3.1099401 0.66482157
0.31106547 -3.0507281 0.64043474
0.19196256 -3.6132097 0.68322092
0.15532182 -3.5695832 0.699907
0.10135779 -3.5348184 0.6936577
0.067679115 -3.4973571 0.70424348
0.090042308 -3.5022273 0.68646234
0.064263254 -3.4705143 0.68703091
0.14252214 -3.4175899 0.68990362
0.13602495 -3.3857174 0.68663102
0.071468949 -3.3252323 0.69879174
0.093395792 -3.330054 0.68538553
0.076487385 -3.3066034 0.69720459
0.090903908 -3.2899413 0.70639718
0.098945111 -3.2693515 0.69357336
0.13054469 -3.2641947 0.70530224
0.1653146 -3.2536523 0.70731658
0.21564443 -3.2421532 0.70284945
0.11742198 -3.2090759 0.70015168
0.13799106 -3.2164001 0.70818067
0.18686114 -3.2319067 0.70993876
0.22732477 -3.2197719 0.692846
0.14828217 -3.191803 0.70413041
0.17430076 -3.1794262 0.70210594
0.21414652 -3.1784616 0.69737923
0.25175804 -3.1790624 0.68657225
0.22904712 -3.1525931 0.71454424
0.26467666 -3.1469684 0.70302296
0.29347324 -3.1307762 0.69535798
0.072411798 -3.2878869 0.74364066
0.08812996 -3.288449 0.72684479
0.074530393 -3.2669723 0.74693936
0.099154897 -3.2572629 0.73810458
0.14200111 -3.2536249 0.73179036
0.17858033 -3.2479668 0.72513533
0.14690673 -3.2276173 0.73577166
0.17506614 -3.213284 0.74024117
0.20318483 -3.2089591 0.75581658
0.093143895 -3.1703947 0.75555229
0.18970357 -3.1884854 0.73139787
0.21504706 -3.1768415 0.74351877
0.091598868 -3.1558924 0.75501233
0.23316775 -3.1518841 0.73200268
0.069269307 -3.2876186 0.76245272
0.069582723 -3.2635062 0.76696968
0.085201092 -3.2439454 0.76996648
0.10005806 -3.2303627 0.77455807
0.13518962 -3.2170811 0.77760112
0.18562323 -3.2203979 0.7691105
0.21624605 -3.2080274 0.77485251
0.066871025 -3.1701159 0.77928597
0.088740677 -3.1786964 0.77124691
0.1211711 -3.1925046 0.78186172
0.19288358 -3.1982107 0.78661209
0.21575493 -3.1915498 0.77443773
0.062280774 -3.1549451 0.7760452
0.083136514 -3.1566806 0.76316375
