# .PCD v0.7 - Point Cloud Data file format
VERSION 0.7
FIELDS x y z
SIZE 4 4 4
TYPE F F F
COUNT 1 1 1
WIDTH 180
HEIGHT 1
VIEWPOINT 0 0 0 1 0 0 0
POINTS 180
DATA ascii
0.087951802 -1.5689628 0.46295929
0.079358637 -1.525984 0.47885841
0.094088078 -1.557238 0.47612348
0.077462241 -1.515788 0.47959214
0.094222553 -1.5003613 0.47963268
0.12405936 -1.4842594 0.47900245
0.13580382 -1.4678811 0.47937512
0.10585833 -1.5751597 0.50055718
0.13114251 -1.5650152 0.51288992
0.10384442 -1.5430955 0.49213371
0.13619171 -1.5411956 0.508488
0.092422627 -1.5043935 0.50270504
0.1234038 -1.4849011 0.48960492
0.10995138 -1.4556952 0.5037688
0.13127844 -1.4599 0.49256587
0.102055 -1.4191865 0.50089008
0.074273005 -1.3656306 0.51940084
0.10633187 -1.3844901 0.51484507
0.095358856 -1.3311939 0.51066351
0.10621448 -1.3032744 0.51200789
0.12098307 -1.2845801 0.51264864
0.11814107 -1.2693825 0.5136832
0.2947033 -1.8847271 0.55667126
0.27656025 -1.8418795 0.55249399
0.28676423 -1.8617363 0.54789096
0.268345 -1.8279051 0.55919373
0.13343757 -1.6191286 0.54784
0.11867036 -1.5811887 0.53958583
0.12591472 -1.57833 0.5433535
0.13235146 -1.5377988 0.54058129
0.10632276 -1.5016932 0.53012532
0.12179749 -1.4965479 0.55011648
0.10820611 -1.4599595 0.53286356
0.122868 -1.4651221 0.55258191
0.1143827 -1.4232585 0.53601366
0.12192959 -1.4120892 0.55083108
0.11373001 -1.3782561 0.54295433
0.12517358 -1.3847898 0.54539108
0.073643558 -1.34109 0.53410161
0.088132322 -1.3266093 0.53172463
0.095834099 -1.2998261 0.53964615
0.10183244 -1.2632717 0.54204845
0.12299328 -1.2425857 0.5310601
0.092658825 -1.2191881 0.54483944
0.12512425 -1.2314579 0.53170192
0.085008927 -1.1915231 0.55031389
0.29106441 -1.8850937 0.57519335
0.26477444 -1.8475206 0.58832192
0.28870237 -1.8619201 0.57523876
0.25803766 -1.8203208 0.58691728
0.28453058 -1.8331172 0.57183182
0.2182125 -1.7769524 0.58252078
0.24893388 -1.7996922 0.57224262
0.15654002 -1.7221832 0.57828903
0.18251413 -1.7413056 0.58034825
0.13286118 -1.695961 0.57866979
0.16067892 -1.7106895 0.56251001
0.13345268 -1.655145 0.5855425
0.11340164 -1.6119748 0.59521854
0.13227129 -1.6223621 0.57898021
0.1086603 -1.5919971 0.59433758
0.13072696 -1.5796208 0.57807422
0.14164534 -1.5387976 0.57785076
0.11948739 -1.4896964 0.56915474
0.13258174 -1.5011271 0.58316422
0.11860605 -1.4790924 0.56977355
0.13412853 -1.4603316 0.58135492
0.13127108 -1.4199933 0.5792107
0.10878437 -1.3727884 0.57201988
0.13765042 -1.386163 0.58585483
0.035746839 -1.2964478 0.5931012
0.061608855 -1.3001299 0.57885718
0.097591624 -1.2971847 0.564578
0.074109733 -1.2581415 0.58131355
0.086835951 -1.2688258 0.57127428
0.073304154 -1.2312795 0.56822836
0.09757638 -1.2091831 0.56994981
0.097151943 -1.1952435 0.563887
0.22629733 -1.8440448 0.60400122
0.22119534 -1.8200308 0.61688083
0.18247201 -1.776004 0.62187153
0.17591996 -1.7414013 0.62177676
0.18439233 -1.7092272 0.62179333
0.16267355 -1.6474364 0.61105478
0.20022522 -1.6422063 0.63736606
0.10500626 -1.6123499 0.61232144
0.13370119 -1.6229305 0.62115288
0.17576341 -1.6333122 0.62990582
0.10289755 -1.5867733 0.61866474
0.12459105 -1.5678403 0.61835563
0.14535986 -1.5508329 0.62288463
0.16663887 -1.5308059 0.61840922
0.14649662 -1.4889445 0.61117136
0.17302223 -1.5017947 0.62490231
0.15226027 -1.4603738 0.62019032
0.1652557 -1.4470934 0.61777282
0.15121065 -1.4197737 0.60556936
0.17865896 -1.4187015 0.62839854
0.15299861 -1.3828007 0.63736159
0.17944881 -1.3785297 0.61723983
0.18725611 -1.35506 0.61910325
0.24775752 -1.8498106 0.6779387
0.23117231 -1.8168564 0.64576817
0.24911332 -1.8223454 0.6706394
0.18950009 -1.7724284 0.65540314
0.22213377 -1.7939153 0.65995502
0.17739278 -1.7429253 0.65194786
0.20731616 -1.738379 0.66734701
0.17249887 -1.7132658 0.64744681
0.21921965 -1.7113154 0.67046899
0.21834016 -1.6509647 0.65035892
0.25902545 -1.6632385 0.67028379
0.14195077 -1.6072558 0.6485647
0.17790695 -1.6132293 0.66542661
0.20791994 -1.6292067 0.66226578
0.24490018 -1.6378744 0.67810458
0.11946222 -1.5906593 0.64349562
0.13295653 -1.5759147 0.65311986
0.18284382 -1.5856152 0.67339152
0.21390405 -1.5645022 0.6785773
0.14139025 -1.546723 0.65286517
0.17193832 -1.527393 0.65286386
0.20608348 -1.5525451 0.67830455
0.19190525 -1.5044564 0.64870971
0.21499367 -1.500021 0.65676165
0.13955149 -1.4562817 0.65587354
0.14912899 -1.4218407 0.66005975
0.17282686 -1.4202788 0.64808589
0.15039353 -1.3856374 0.65593004
0.16497254 -1.3776329 0.67233336
0.17864779 -1.3559489 0.65711719
0.21525893 -1.3359163 0.66302431
0.25879541 -1.8853661 0.70184803
0.23966478 -1.8442866 0.71344668
0.24739464 -1.8590323 0.70013541
0.2388771 -1.8260584 0.71439683
0.25581315 -1.8187637 0.69585598
0.25891417 -1.7807773 0.69592965
0.23251148 -1.7323574 0.68286866
0.25384501 -1.7410265 0.70100719
0.23631331 -1.6858025 0.69217801
0.24289112 -1.7027575 0.69987679
0.26666224 -1.6557417 0.70026779
0.28613964 -1.6609099 0.69945323
0.22632582 -1.609785 0.69931644
0.25360239 -1.6246363 0.70845371
0.22829589 -1.5871763 0.69993109
0.25968614 -1.5763558 0.70814115
0.2918689 -1.5698617 0.71324748
0.27291155 -1.5558817 0.69891554
0.1425368 -1.4496485 0.70223922
0.14949118 -1.4251455 0.70099658
0.17089798 -1.4064361 0.6995821
0.18379457 -1.3866037 0.6983366
0.20459852 -1.3687505 0.7066074
0.22278182 -1.3476139 0.70113659
0.24565724 -1.3276358 0.70881975
0.23787072 -1.8507144 0.72487199
0.24063344 -1.8695557 0.72424567
0.23319732 -1.82546 0.72553957
0.24991448 -1.7261951 0.72216696
0.24688439 -1.7015429 0.72312379
0.23848799 -1.6419904 0.74944818
0.25499758 -1.6544991 0.73031259
0.22605121 -1.6147816 0.73823053
0.24406017 -1.6289971 0.72695738
0.22022633 -1.5818479 0.73912221
0.24968836 -1.5692915 0.73144072
0.29407614 -1.5707638 0.72613466
0.21935605 -1.5567411 0.73900288
0.14995396 -1.450457 0.72556955
0.16413189 -1.4426765 0.73597109
0.2050771 -1.4409069 0.75507224
0.15502007 -1.4315242 0.72380418
0.18138307 -1.4185711 0.7328229
0.21011002 -1.4169478 0.74960119
0.21574143 -1.3833838 0.73392105
0.23894446 -1.3536334 0.73039889
0.25299448 -1.3397713 0.73342663
0.22820818 -1.4100089 0.76123512
