# .PCD v0.7 - Point Cloud Data file format
VERSION 0.7
FIELDS x y z
SIZE 4 4 4
TYPE F F F
COUNT 1 1 1
WIDTH 248
HEIGHT 1
VIEWPOINT 0 0 0 1 0 0 0
POINTS 248
DATA ascii
0.1482317 -3.3320811 0.30821639
0.15580899 -3.3160412 0.31865522
0.16632842 -3.3131652 0.30424115
0.14879133 -3.3349624 0.34071076
0.15684515 -3.3107431 0.34104204
0.15361476 -3.3281999 0.37973544
0.16260454 -3.343075 0.36798924
0.15501873 -3.3075612 0.38443223
0.16203682 -3.30163 0.37240672
0.15219219 -3.3280668 0.41718051
0.14327589 -3.3001678 0.42307091
0.14644606 -3.2646213 0.42944285
0.14917752 -3.3325975 0.45978859
0.14423101 -3.3011281 0.45929956
0.11328857 -3.2601993 0.47381043
0.14052036 -3.2680938 0.45446315
0.12417967 -3.2393594 0.47653249
0.18817908 -2.9893646 0.47509938
0.25364146 -3.6844585 0.50736916
0.22635172 -3.6551783 0.51180446
0.24751973 -3.6719291 0.50255108
0.15197085 -3.361032 0.51629621
0.15296461 -3.3466427 0.49781692
0.14524595 -3.2931967 0.49591175
0.14030771 -3.2618718 0.49894014
0.15714438 -3.2372625 0.51451707
0.17556931 -3.22103 0.50116712
0.20972379 -3.2093518 0.48516163
0.18259358 -3.1837816 0.50728446
0.20574537 -3.1785417 0.49240503
0.19864586 -3.1431243 0.51833439
0.21097988 -3.1443613 0.50161719
0.18640184 -3.0848358 0.51253921
0.15015708 -3.0552104 0.51387286
0.17414685 -3.0715387 0.51074505
0.15997042 -3.0396183 0.51195455
0.18322888 -3.0192721 0.5035376
0.20269401 -3.0070744 0.50759184
0.19426529 -2.9894328 0.48577982
0.20626685 -2.9889114 0.5064556
0.19611017 -3.6506412 0.54731846
0.2110492 -3.6602974 0.53087115
0.22000842 -3.6288652 0.54082108
0.25322443 -3.6117749 0.54464984
0.22833924 -3.5918272 0.55993295
0.10214563 -3.4458604 0.55930686
0.10329601 -3.4194691 0.55891848
0.11359248 -3.3975048 0.55848789
0.13373472 -3.3760619 0.54940331
0.14241265 -3.3530903 0.54041195
0.15270305 -3.2868626 0.52730608
0.14757834 -3.2599859 0.53826809
0.14292009 -3.220458 0.5386765
0.15217429 -3.1860557 0.54406023
0.17453848 -3.1741433 0.53180259
0.18260969 -3.1400213 0.54099894
0.20174323 -3.1532092 0.52544761
0.18275653 -3.0856419 0.53229022
0.20621045 -3.0844364 0.54941058
0.15095076 -3.0551994 0.53488296
0.17305827 -3.0682287 0.54363483
0.2273767 -3.0638213 0.55870831
0.15635209 -3.039603 0.53929758
0.18568397 -3.0172553 0.54210716
0.21612284 -3.0175118 0.5499692
0.19486718 -2.9925041 0.54976445
0.20484297 -2.9856369 0.52936584
0.1970268 -3.6470406 0.5659411
0.18641944 -3.6124678 0.59031713
0.21359707 -3.6231163 0.5690614
0.17975959 -3.5792377 0.58588678
0.21024944 -3.594146 0.56996298
0.15430276 -3.5319693 0.5843218
0.16601428 -3.5541217 0.58690232
0.14990811 -3.5034037 0.58729362
0.09236677 -3.4519451 0.58570021
0.12090374 -3.4725842 0.5931319
0.10453629 -3.4224968 0.58071065
0.12111357 -3.4081874 0.59212059
0.11257242 -3.3805237 0.58139729
0.1357812 -3.3814266 0.57612836
0.10439777 -3.3370976 0.59456652
0.13520679 -3.3520706 0.578399
0.10974898 -3.3101394 0.59427786
0.13443068 -3.2885351 0.58488363
0.14944842 -3.2728271 0.57572442
0.17398299 -3.2531645 0.58322185
0.1476762 -3.2165041 0.57220012
0.16645856 -3.220541 0.58559102
0.15406738 -3.1781392 0.5686084
0.16797604 -3.1797559 0.58953226
0.15761924 -3.1462803 0.56889451
0.16655867 -3.1409495 0.58559525
0.17744263 -3.1092415 0.58857065
0.21034217 -3.0898314 0.58538985
0.23373719 -3.0760672 0.5856176
0.25653571 -3.0579271 0.58085209
0.28328177 -3.0471339 0.57455361
0.19549268 -3.00402 0.5684433
0.21530895 -3.0076478 0.57439476
0.2646724 -3.015523 0.57201999
0.29572973 -3.0273883 0.5820877
0.33797747 -3.0095851 0.58156192
0.19164516 -2.9906471 0.57192147
0.14808616 -3.6079645 0.6063174
0.11989506 -3.5610974 0.62163025
0.1335302 -3.5811913 0.62004733
0.16335425 -3.5769839 0.60278046
0.11575296 -3.546243 0.6289053
0.14010824 -3.5369329 0.61206007
0.10748737 -3.4915156 0.62724376
0.13408174 -3.5045416 0.61441714
0.070256598 -3.4553881 0.62753886
0.091077514 -3.4624684 0.61288798
0.074766614 -3.4358249 0.62372851
0.1010972 -3.4211395 0.62366199
0.12238462 -3.4101996 0.60970205
0.10307973 -3.3670144 0.62210858
0.12573865 -3.3894391 0.63009816
0.087986797 -3.3383412 0.61953402
0.10395049 -3.311012 0.61655194
0.13877358 -3.2948959 0.61966753
0.1759482 -3.285814 0.63141447
0.1548323 -3.2479773 0.61562747
0.17458786 -3.2611709 0.62056422
0.14891908 -3.2204959 0.61852056
0.1639601 -3.2068284 0.63395745
0.15495242 -3.1942227 0.61012155
0.17970283 -3.1810918 0.61801541
0.210758 -3.1676688 0.62836909
0.15493231 -3.1305342 0.60675234
0.18082894 -3.1398737 0.6128518
0.22094883 -3.1461756 0.62611753
0.24365483 -3.1345081 0.63525122
0.15621252 -3.1172175 0.60887516
0.17791009 -3.1065297 0.6136623
0.2268551 -3.1002729 0.63114256
0.2405152 -3.090646 0.63427263
0.27027008 -3.0633724 0.62293392
0.29710954 -3.0584342 0.62317258
0.33554676 -3.047792 0.62553227
0.27246761 -3.0210924 0.63500643
0.30353963 -3.0207579 0.61860877
0.33140141 -3.0336211 0.62015146
0.306254 -2.9875782 0.62946612
0.32176271 -2.9831762 0.62147349
0.15340772 -3.606128 0.64514136
0.19170745 -3.6127281 0.66621584
0.20403047 -3.6326859 0.67279387
0.1464075 -3.5815637 0.64538795
0.18511702 -3.5922856 0.66529745
0.11139681 -3.5268269 0.66667122
0.10539088 -3.5002334 0.66072416
0.068979211 -3.4589441 0.64310187
0.099562675 -3.4603517 0.6619665
0.10766982 -3.4246209 0.65332788
0.12731992 -3.4103 0.66366291
0.11619455 -3.3632267 0.64488143
0.13502602 -3.3824039 0.66087621
0.109153 -3.3347743 0.65843266
0.1269874 -3.3510575 0.6666137
0.077182002 -3.2944224 0.67408758
0.096893944 -3.3039119 0.6654821
0.13557629 -3.3025715 0.65409124
0.17653534 -3.2902155 0.64802432
0.078103386 -3.2758653 0.66617274
0.098255008 -3.2626178 0.66881466
0.13964286 -3.2554746 0.66172278
0.17840213 -3.2561381 0.64991146
0.20913149 -3.2653041 0.64275515
0.15772417 -3.2298648 0.65250212
0.17721619 -3.2193975 0.65991461
0.21200487 -3.2085824 0.67266345
0.19876824 -3.1935265 0.64434659
0.22774576 -3.1822965 0.66230989
0.25368068 -3.1693304 0.66405302
0.26876652 -3.1466842 0.6559028
0.28762475 -3.1316926 0.66553545
0.30484012 -3.1042671 0.6617853
0.3282716 -3.0830424 0.67177409
0.25492963 -3.0461707 0.64792538
0.30268788 -3.0576007 0.65128547
0.33677667 -3.0612772 0.66632825
0.25538164 -3.0206807 0.64899182
0.27273729 -2.9881129 0.65275705
0.28368291 -2.9841993 0.64274818
0.19607328 -3.6159756 0.69236267
0.20197265 -3.6340263 0.6884256
0.1946432 -3.5944901 0.68686789
0.10395153 -3.5287926 0.69155276
0.07236468 -3.49387 0.70648718
0.091605432 -3.5029225 0.69051391
0.073117629 -3.4636464 0.69168603
0.084321737 -3.4714813 0.68711692
0.13386275 -3.4089348 0.68139505
0.13835438 -3.3833928 0.68235636
0.094251014 -3.3306897 0.68971425
0.13126236 -3.3572001 0.68348891
0.078120604 -3.3040445 0.69499463
0.084589951 -3.2882459 0.69751245
0.10282382 -3.2682605 0.69760406
0.13671671 -3.2528689 0.70096856
0.16745448 -3.2446461 0.70761269
0.13943307 -3.2081163 0.70913643
0.18405017 -3.2273624 0.70468408
0.21518375 -3.2120423 0.69224828
0.1406547 -3.1845796 0.70060456
0.1781954 -3.1752877 0.69568485
0.21649222 -3.1848121 0.68436641
0.19559568 -3.1565032 0.71190417
0.22061042 -3.1442983 0.70295769
0.25765818 -3.134454 0.69118482
0.28224385 -3.1207333 0.68394536
0.27059823 -3.1121976 0.70568711
0.29171085 -3.1027994 0.69138944
0.32700509 -3.082813 0.68776464
0.35378239 -3.0704653 0.6861518
0.3745524 -3.0588293 0.68377155
0.076413341 -3.2812681 0.724325
0.073129475 -3.2613571 0.74554229
0.091625914 -3.2567749 0.72908491
0.13902906 -3.2439883 0.72672522
0.079773545 -3.2355478 0.75638372
0.098525457 -3.2322698 0.75066137
0.14278938 -3.2243652 0.74135298
0.17303269 -3.2175612 0.73864329
0.20072472 -3.2016971 0.75738621
0.086308502 -3.1642306 0.75591457
0.15155244 -3.1920035 0.72059327
0.1826048 -3.1788778 0.73434269
0.20646173 -3.190486 0.75446475
0.089155965 -3.1484501 0.75477105
0.19637311 -3.159555 0.73018861
0.22172724 -3.1453149 0.72998637
0.24268892 -3.1321905 0.73288035
0.067865223 -3.2535689 0.76380277
0.076728784 -3.2354875 0.76554281
0.099531211 -3.2213118 0.76846737
0.14436917 -3.2085943 0.7718873
0.19071653 -3.202014 0.7737627
0.20229523 -3.2014277 0.76498961
0.084927939 -3.1661432 0.77205801
0.217372 -3.1910596 0.77305591
0.26235893 -3.1817384 0.78326976
0.069282435 -3.1402075 0.78438807
0.089751527 -3.1402335 0.76950788
0.10701307 -3.1129217 0.78763026
0.13126723 -3.1068799 0.78387529
