# .PCD v0.7 - Point Cloud Data file format
VERSION 0.7
FIELDS x y z
SIZE 4 4 4
TYPE F F F
COUNT 1 1 1
WIDTH 213
HEIGHT 1
VIEWPOINT 0 0 0 1 0 0 0
POINTS 213
DATA ascii
0.089557938 -1.5764037 0.47571123
0.1041864 -1.5787575 0.49936637
0.13024321 -1.5703943 0.50999671
0.092262067 -1.5284775 0.49925962
0.13866274 -1.5482736 0.50923395
0.095159553 -1.5040311 0.50102305
0.13828395 -1.4863236 0.48952892
0.11067161 -1.4548998 0.50536996
0.13849223 -1.4684564 0.49495173
0.095843025 -1.4216409 0.50430262
0.11241429 -1.3870323 0.51546293
0.078124955 -1.3388696 0.51630628
0.08317107 -1.3242205 0.5173409
0.1017839 -1.3030109 0.51846433
0.12413336 -1.2837228 0.51572478
0.12477014 -1.270986 0.51496464
0.27898094 -1.8855138 0.53664833
0.28252608 -1.8961955 0.54738879
0.23991285 -1.842304 0.55717236
0.2717886 -1.8643097 0.54471058
0.28282696 -1.8781863 0.55596399
0.19999288 -1.8088617 0.55830157
0.20930819 -1.8162937 0.55806851
0.17755674 -1.7651234 0.55340773
0.16800041 -1.7408222 0.55507731
0.14632793 -1.7075144 0.55707735
0.14481537 -1.6464431 0.5517208
0.17118758 -1.642217 0.54071838
0.11874861 -1.6020722 0.55045587
0.13782544 -1.6150885 0.54342872
0.1704427 -1.6306373 0.53790134
0.11679056 -1.5892626 0.5437777
0.12802607 -1.5731753 0.53854841
0.10926291 -1.5242 0.53192198
0.13091996 -1.5428091 0.54104751
0.10545899 -1.5001142 0.5414477
0.10872122 -1.4600036 0.53855819
0.11027026 -1.4243238 0.53838116
0.12507474 -1.4056754 0.55109793
0.063694589 -1.3662218 0.52994478
0.11662485 -1.3824326 0.54461652
0.12730958 -1.3878651 0.54325438
0.067190155 -1.3409377 0.53553069
0.088185377 -1.3373022 0.55567276
0.13910903 -1.3558447 0.55647135
0.073324963 -1.3171796 0.53526771
0.096636206 -1.2967914 0.54161811
0.10702757 -1.2616358 0.54415137
0.12320431 -1.2503766 0.52778852
0.091430835 -1.2242519 0.54762304
0.12406708 -1.2323588 0.53304428
0.085167453 -1.1985282 0.55517083
0.28949282 -1.8930241 0.57447761
0.23616371 -1.8424921 0.56897014
0.25640216 -1.8557324 0.58560616
0.28348905 -1.8735864 0.57462269
0.22871614 -1.8184637 0.57651305
0.25652325 -1.8236108 0.58658361
0.28136575 -1.8226422 0.58530271
0.18893102 -1.7689855 0.58562481
0.21646005 -1.7807261 0.58136135
0.15214661 -1.7269758 0.57470751
0.17428145 -1.7457771 0.57697594
0.11590195 -1.6952384 0.58776957
0.13181338 -1.7008286 0.5752877
0.13319102 -1.6579562 0.58090568
0.11389713 -1.6100322 0.58260798
0.13011523 -1.6268004 0.58068997
0.11075794 -1.5870051 0.58888978
0.1241879 -1.5746654 0.57547379
0.11643443 -1.5243737 0.56392342
0.13681191 -1.541467 0.57996833
0.11548369 -1.4943196 0.57096249
0.13060363 -1.5044426 0.5873009
0.11501321 -1.4493592 0.5628953
0.13537425 -1.4626064 0.57957238
0.16317594 -1.4479184 0.59386122
0.11605141 -1.427966 0.56466949
0.13256159 -1.4193513 0.58252603
0.11216246 -1.3799502 0.5724768
0.13351795 -1.3888102 0.58687925
0.1613009 -1.3776747 0.59952623
0.10216565 -1.3238003 0.56588197
0.13754402 -1.3496734 0.5683791
0.073833622 -1.2939661 0.59009731
0.09094698 -1.3015305 0.572905
0.074812897 -1.269181 0.59057629
0.091419406 -1.2592462 0.57416499
0.07969521 -1.2143881 0.56077999
0.089963041 -1.2232469 0.56952375
0.085516319 -1.1990501 0.56550038
0.23560879 -1.8462813 0.62063122
0.24883422 -1.8614049 0.60441554
0.1954571 -1.8060465 0.62012094
0.22162256 -1.8247535 0.61944813
0.1749649 -1.7780237 0.62109524
0.20009528 -1.7979741 0.60567385
0.17480029 -1.7385507 0.62087834
0.14288664 -1.710953 0.60080373
0.18731561 -1.7124985 0.62480396
0.14895499 -1.6628996 0.60518605
0.17911366 -1.649945 0.6189822
0.21654049 -1.6624087 0.62992805
0.098355234 -1.6129949 0.62060785
0.13876329 -1.6325125 0.61922187
0.1020859 -1.5867018 0.61861092
0.12762028 -1.5683157 0.62023073
0.14912891 -1.5468372 0.61936176
0.16558677 -1.5298393 0.62252069
0.14725579 -1.4945245 0.61147875
0.17092437 -1.5045863 0.62621295
0.15075919 -1.4690671 0.62221825
0.16675992 -1.4501828 0.61894631
0.14796591 -1.4240085 0.60891175
0.17465429 -1.416186 0.62833345
0.18024275 -1.3783239 0.62315416
0.19400366 -1.3590013 0.61797667
0.075012363 -1.3042042 0.60148394
0.24247979 -1.8491678 0.67494541
0.19766055 -1.8011161 0.64404851
0.23237437 -1.8216534 0.66339135
0.24036244 -1.8366435 0.66218901
0.17733066 -1.7744161 0.65159172
0.21092461 -1.7816721 0.66743892
0.17968772 -1.7407604 0.65465361
0.21642782 -1.7412305 0.67485058
0.24005271 -1.7255317 0.67931944
0.1742278 -1.7155949 0.64684546
0.20080969 -1.7184262 0.66679001
0.19193533 -1.6453611 0.64066178
0.21883388 -1.6577569 0.6577071
0.25885272 -1.6661091 0.67688286
0.1128959 -1.6060809 0.64309222
0.13637243 -1.6148392 0.65320969
0.17697975 -1.6233197 0.66381031
0.21189064 -1.6345102 0.67507005
0.11524916 -1.5883843 0.64479327
0.12894516 -1.576245 0.65505809
0.17793773 -1.5823076 0.67499065
0.13831569 -1.5472213 0.6534825
0.17498757 -1.5275344 0.65621668
0.20163625 -1.5248752 0.67490536
0.1891205 -1.4998064 0.64678043
0.21349522 -1.503323 0.66236866
0.14342387 -1.4597795 0.65864801
0.16845727 -1.4650118 0.65459549
0.14639908 -1.4195904 0.66584921
0.1746244 -1.4221374 0.6470111
0.14877109 -1.3855773 0.65849119
0.16952251 -1.3659346 0.66128576
0.18260741 -1.3543779 0.66161847
0.2085536 -1.3444871 0.66438675
0.24957368 -1.887323 0.70590675
0.23883197 -1.8465835 0.68543643
0.2452821 -1.8607143 0.70271599
0.23825803 -1.8323723 0.68975085
0.2498149 -1.8167859 0.6996417
0.28099233 -1.8187966 0.71914327
0.23944235 -1.7860577 0.68237793
0.2591688 -1.7840911 0.69616026
0.28497452 -1.775436 0.71156871
0.25551462 -1.7400367 0.7003361
0.23800379 -1.7030907 0.70108962
0.25935674 -1.6901512 0.69845122
0.26882973 -1.6516378 0.69873345
0.29072478 -1.6656682 0.70512509
0.1869331 -1.610074 0.68159574
0.22556254 -1.6170272 0.70103985
0.25000054 -1.6321285 0.70666158
0.19656342 -1.5953662 0.68409657
0.22178523 -1.5879186 0.69944507
0.25047061 -1.5769964 0.71055347
0.21550797 -1.5573344 0.68976009
0.13980007 -1.4538172 0.70363033
0.14681852 -1.4330525 0.69982058
0.16800496 -1.41239 0.70349479
0.15812209 -1.3877832 0.68083906
0.18210979 -1.383251 0.7007463
0.20467257 -1.3638225 0.70804846
0.22326827 -1.3489499 0.70078081
0.24173492 -1.3410362 0.69480121
0.38218209 -1.2816874 0.69865906
0.38658935 -1.2676572 0.69385034
0.40254924 -1.260398 0.71172959
0.24812998 -1.8852839 0.72453701
0.24848184 -1.8602494 0.72766662
0.26358038 -1.836323 0.72721261
0.29741883 -1.82157 0.72849977
0.30482966 -1.7948159 0.72512734
0.24604657 -1.7289044 0.72385526
0.23755321 -1.7128271 0.720465
0.24103244 -1.705597 0.72435641
0.26094285 -1.6520281 0.73761314
0.29482874 -1.6680851 0.72812146
0.22219679 -1.6174482 0.74306124
0.24398477 -1.6303984 0.72284681
0.22726341 -1.5944053 0.73510796
0.25478101 -1.5813019 0.73820388
0.14857404 -1.4536833 0.72983462
0.17162751 -1.4475895 0.74631995
0.20085998 -1.446002 0.75965399
0.15797034 -1.4322917 0.72616822
0.18332724 -1.4223105 0.73831826
0.21391641 -1.4110124 0.75504595
0.18616466 -1.3908799 0.72453278
0.21584281 -1.3699697 0.73051131
0.24311304 -1.3688768 0.74950135
0.22927468 -1.3507541 0.72722977
0.25076374 -1.3509208 0.74134845
0.40276363 -1.2702409 0.72317362
0.25247356 -1.6492496 0.76106167
0.26201808 -1.5801034 0.76028359
0.21325979 -1.4333386 0.76303577
