# .PCD v0.7 - Point Cloud Data file format
VERSION 0.7
FIELDS x y z
SIZE 4 4 4
TYPE F F F
COUNT 1 1 1
WIDTH 208
HEIGHT 1
VIEWPOINT 0 0 0 1 0 0 0
POINTS 208
DATA ascii
0.044089485 -4.2020273 0.39520884
0.041602135 -4.1997142 0.38417369
0.029516531 -4.2056251 0.43054152
0.029108966 -4.1841612 0.42338496
0.020826375 -4.1372561 0.4329651
0.021144563 -4.2041993 0.46365079
-0.019155491 -4.1944232 0.47919405
0.031658128 -4.1835971 0.45806468
0.053840969 -4.1741066 0.47201774
0.062375352 -4.155117 0.46731228
0.10003824 -4.1398606 0.47156784
0.11904093 -4.115128 0.47907621
0.12712586 -4.1067657 0.47930509
-0.0024666789 -4.2095246 0.48898104
0.021161593 -4.2199712 0.50163478
0.040037971 -4.2007766 0.49981666
0.035406459 -4.1968975 0.50011492
0.057605598 -4.1776681 0.50056511
0.074455991 -4.1484137 0.50163722
0.10057887 -4.1375504 0.50009871
0.13148193 -4.1262641 0.50338072
0.1474736 -4.1090026 0.50384754
0.16534056 -4.104404 0.50171822
-0.32518876 -4.3881798 0.53506947
-0.30847678 -4.3877287 0.54556882
-0.22719631 -4.3241324 0.55282104
-0.2318431 -4.3001189 0.55311888
-0.17551875 -4.2908363 0.54061967
-0.13942476 -4.2982755 0.54194641
-0.11076873 -4.2926779 0.54734993
-0.25199541 -4.2561188 0.55351442
-0.21637629 -4.2690907 0.54346365
-0.19595604 -4.2782464 0.5433805
-0.10155481 -4.2651258 0.54584312
-0.062780239 -4.2479563 0.55326766
-0.052521944 -4.2324286 0.54298764
-0.025334666 -4.2286382 0.54547852
0.0065197973 -4.2201343 0.53843176
-0.0072754086 -4.1768546 0.55505306
0.021585297 -4.1826816 0.53653657
0.056713037 -4.1732664 0.54249841
0.067802936 -4.1410451 0.54258072
0.090973981 -4.1241546 0.5368461
0.10568582 -4.106751 0.54062504
0.1299957 -4.0933194 0.53578585
-0.30220085 -4.4411936 0.56101674
-0.31809905 -4.4135885 0.57152998
-0.32707623 -4.3809309 0.58160454
-0.30827677 -4.3700051 0.57180911
-0.25916651 -4.3722219 0.58929777
-0.23717116 -4.3767977 0.59016883
-0.30137563 -4.351634 0.59060508
-0.22641097 -4.3378248 0.58070403
-0.21339893 -4.3046222 0.58518773
-0.18275392 -4.2869749 0.59068733
-0.14164391 -4.2916689 0.58192515
-0.11090679 -4.2928038 0.57051277
-0.24665064 -4.2555575 0.56360859
-0.21953079 -4.262176 0.57183778
-0.18466368 -4.276413 0.56468797
-0.14228901 -4.2779341 0.59288585
-0.096808635 -4.2729425 0.58018947
-0.060727738 -4.2566857 0.57977241
-0.037244234 -4.2421007 0.58509326
-0.24299994 -4.2359395 0.56383789
-0.017458852 -4.224267 0.57900971
-0.0095153023 -4.1754909 0.58018136
0.021990307 -4.1688271 0.58387953
0.064798869 -4.1797814 0.57829028
0.085834645 -4.1741166 0.5906927
0.070234194 -4.1350989 0.57551754
0.091131732 -4.1392574 0.59228444
0.10387506 -4.1121845 0.57810301
0.13152409 -4.0920458 0.57780182
0.17680591 -4.0849805 0.59726048
0.14177531 -4.0765591 0.57862651
0.18859512 -4.0785408 0.59762859
-0.33716434 -4.3703513 0.60979408
-0.32793713 -4.3419337 0.61803907
-0.30429924 -4.3270774 0.61762995
-0.26041922 -4.3390074 0.62056082
-0.22829758 -4.3290844 0.62406427
-0.21130541 -4.3131247 0.61433893
-0.18066965 -4.3005686 0.6188395
-0.13940577 -4.29352 0.62093514
-0.10159822 -4.2893906 0.62434006
-0.086818263 -4.2771263 0.61433065
-0.065432653 -4.2587056 0.61676568
-0.051315863 -4.2205157 0.62291998
-0.032162849 -4.2122531 0.60491419
-0.020167658 -4.1819119 0.62037742
0.019481225 -4.1677165 0.63498616
0.051060706 -4.1671686 0.61660224
0.090894379 -4.1703963 0.62009925
-0.0069649471 -4.1562181 0.60243416
0.011418811 -4.1571608 0.61443031
0.10304338 -4.1386776 0.6159339
0.11213486 -4.115622 0.62145704
0.13785172 -4.0988593 0.62064761
0.18224575 -4.0867419 0.61991107
0.19971958 -4.0584431 0.63361579
0.20211776 -4.0698404 0.62204409
-0.30329221 -4.405582 0.67923361
-0.32396486 -4.3678675 0.64350426
-0.29958218 -4.3808222 0.66731691
-0.27617183 -4.3697886 0.66873902
-0.32102746 -4.3533583 0.6430378
-0.29770419 -4.3440118 0.64790761
-0.26131865 -4.3447161 0.66326219
-0.2238594 -4.3303704 0.65921682
-0.16410141 -4.3224044 0.64260149
-0.15183584 -4.3213868 0.67722839
-0.2062999 -4.316422 0.66827077
-0.18393369 -4.3155017 0.65741068
-0.14050196 -4.3081384 0.6605168
-0.10729703 -4.2948422 0.6569277
-0.068714321 -4.3036547 0.67205048
-0.094113611 -4.2726655 0.64930552
-0.075232953 -4.2546115 0.65744561
-0.052858785 -4.2272034 0.65539849
-0.03049871 -4.2152252 0.6591109
-0.017581012 -4.1848392 0.65184093
0.019954134 -4.1796298 0.6555239
0.051378164 -4.1753054 0.64593184
0.10748746 -4.1756673 0.65341091
0.12236477 -4.1679597 0.66464585
0.1124543 -4.138196 0.64748681
0.13407171 -4.1334467 0.66557252
0.11619801 -4.1151795 0.64218014
0.14441913 -4.1028023 0.65101433
0.17659886 -4.0912595 0.66067046
0.20871955 -4.0842934 0.67139769
0.21662277 -4.0623364 0.65488029
0.2604382 -4.054543 0.66989142
0.29377466 -4.0362415 0.66947091
-0.29771525 -4.3853698 0.68908817
-0.2470755 -4.3388453 0.6802327
-0.22673261 -4.3271484 0.69226229
-0.17259854 -4.3260021 0.70166868
-0.14420557 -4.3246927 0.70316124
-0.10594615 -4.3334427 0.71738791
-0.2146486 -4.3180957 0.68923587
-0.18391156 -4.3059449 0.7025404
-0.13827576 -4.3033819 0.69146854
-0.10175256 -4.3076501 0.69951379
-0.068336174 -4.3027215 0.69700503
-0.060991652 -4.2613997 0.69527966
-0.019253198 -4.2583799 0.69448757
0.0059266235 -4.2648292 0.70437956
0.10433982 -4.2173438 0.71683514
0.11554075 -4.1924438 0.70629257
0.13155892 -4.173233 0.70286626
0.14862688 -4.1472664 0.69647938
0.16996515 -4.1292663 0.6975534
0.28967249 -4.1253791 0.7058782
0.18615365 -4.1072512 0.69369894
0.21894288 -4.0905333 0.69103503
0.24298291 -4.1120868 0.70074069
0.26460016 -4.0655961 0.68986017
0.28474742 -4.0383635 0.68756777
-0.17434987 -4.3396764 0.72138596
-0.099932209 -4.3322659 0.73560041
-0.059550297 -4.3408108 0.7405296
-0.037243232 -4.3307619 0.73724711
-0.048752453 -4.3093157 0.72191763
-0.027638698 -4.2991552 0.74400318
-0.041795805 -4.2750139 0.75532079
-0.024463089 -4.2708693 0.73630804
0.084244743 -4.2427492 0.73782414
0.10547134 -4.2202992 0.7446484
0.12863123 -4.1808133 0.74512947
0.14262067 -4.1417189 0.74205786
0.17977293 -4.1303148 0.73312652
0.21463382 -4.1286783 0.74544877
0.26235449 -4.1314206 0.74921566
0.21383348 -4.1159105 0.72331333
-0.067983836 -4.3785686 0.78486156
-0.05727651 -4.336585 0.77926785
-0.046647411 -4.3014579 0.78622758
-0.037844468 -4.3051872 0.77710736
-0.04482536 -4.27247 0.77235126
-0.035668612 -4.2648902 0.76691842
0.093968369 -4.214201 0.77156091
0.099926785 -4.191216 0.77965844
0.13918632 -4.1768856 0.78064358
0.16220401 -4.1633773 0.79657108
0.15251407 -4.1387329 0.77250063
0.17028387 -4.1393356 0.79494208
0.22560139 -4.1309037 0.76819581
0.26873484 -4.1356235 0.776474
0.29557139 -4.136754 0.76687157
0.15828308 -4.1165957 0.76604617
0.1790392 -4.1071229 0.7832166
0.20609918 -4.1047049 0.78367174
-0.067899883 -4.3813829 0.80632037
-0.064174198 -4.3362055 0.81206191
-0.055686384 -4.3076477 0.80883569
0.094945818 -4.1896796 0.80181265
0.12516727 -4.1821713 0.80564994
0.16490096 -4.165514 0.81616741
0.18175484 -4.1514916 0.82159424
0.21345353 -4.1414289 0.82734758
0.24558496 -4.1292763 0.83101726
0.21173306 -4.1083074 0.81006867
0.24925618 -4.1618519 0.86243099
0.18519358 -4.1498675 0.84912449
0.22398984 -4.1529346 0.85000455
0.25906402 -4.1527486 0.84960425
